ply
format ascii 1.0
element vertex 1263
property float x
property float y
property float z
property uchar red
property uchar green
property uchar blue
end_header
0.130497 0.078919 1.896047  51 23 7
0.135186 -0.060044 1.899753  119 71 31
0.130659 -0.029020 1.905662  63 31 15
0.126889 0.056986 1.902861  99 59 27
0.133204 -0.118989 1.866694  0 0 0
0.122993 0.001470 1.910641  91 59 27
0.117342 0.159122 1.873779  75 39 23
0.128664 -0.153677 1.860428  131 75 23
0.118033 0.115472 1.881757  79 47 23
0.118899 0.017749 1.907721  39 23 7
0.120419 -0.048916 1.909497  239 163 87
0.120419 -0.048916 1.909497  239 163 87
0.119344 -0.046083 1.911147  75 35 7
0.114443 0.085091 1.888379  75 43 19
0.114443 0.085091 1.888379  75 43 19
0.115106 -0.087729 1.893906  255 179 103
0.102954 -0.020453 1.915469  51 27 11
0.099615 -0.038448 1.915505  79 43 15
0.098522 -0.026948 1.915667  55 27 7
0.096932 -0.035481 1.915220  75 43 19
0.096139 -0.020098 1.915706  111 63 35
0.094619 0.024798 1.913557  63 39 15
0.095232 -0.040280 1.913582  107 71 35
0.093498 0.003833 1.917180  55 23 3
0.086840 0.149961 1.891451  71 43 19
0.092674 -0.011339 1.917499  103 71 31
0.092887 -0.035335 1.914534  63 39 15
0.087109 0.094867 1.901986  79 43 19
0.082436 0.180813 1.885634  35 15 7
0.081443 0.186007 1.884879  71 39 15
0.088934 -0.036675 1.913862  107 75 39
0.083512 0.089125 1.901595  55 27 11
0.083512 0.089125 1.901595  55 27 11
0.087516 -0.047763 1.910308  171 115 63
0.082816 0.049775 1.908179  67 43 19
0.083674 -0.032764 1.914638  183 123 71
0.081795 0.005756 1.916360  99 63 27
0.081638 -0.026924 1.914678  135 87 43
0.065274 0.202299 1.885489  39 19 7
0.066780 0.118032 1.886948  51 27 11
0.069567 -0.006293 1.906611  127 79 35
0.055572 0.213853 1.878676  87 51 23
0.058864 0.105687 1.883317  59 31 15
0.051719 0.148112 1.877868  63 35 15
0.052259 0.093294 1.886067  59 31 15
0.039665 0.306511 1.843197  67 31 15
0.137831 0.136150 1.878089  47 27 11
0.147856 -0.154576 1.868231  243 159 79
0.134321 0.152927 1.875514  51 27 11
0.132192 0.141137 1.878357  51 31 11
0.140969 -0.141612 1.857960  111 71 27
0.131029 0.096110 1.891850  91 55 23
0.129674 0.013196 1.909522  87 51 19
0.129338 -0.044015 1.903409  31 11 0
0.121334 0.082243 1.891019  71 43 19
0.121334 0.082243 1.891019  71 43 19
0.127679 -0.128039 1.861108  107 67 31
0.116580 0.093624 1.885713  23 7 3
0.119924 -0.020255 1.911791  55 31 15
0.117205 -0.139384 1.854589  143 99 51
0.110352 -0.044013 1.913306  87 55 27
0.110424 -0.134127 1.849576  0 0 0
0.107748 -0.087497 1.891983  147 91 43
0.097154 0.024542 1.914144  43 19 7
0.094212 -0.006880 1.917613  103 63 27
0.094456 -0.024122 1.915913  107 67 27
0.094456 -0.024122 1.915913  107 67 27
0.084960 0.207119 1.881021  55 27 11
0.091135 0.034233 1.912111  35 15 7
0.091505 0.000301 1.917387  91 59 23
0.077570 0.313491 1.854511  51 23 15
0.088623 0.002770 1.917186  59 31 11
0.083756 0.140453 1.892027  35 19 11
0.081774 0.091290 1.899811  75 43 19
0.080947 0.032328 1.909861  31 15 3
0.080501 0.038332 1.909350  75 43 15
0.079144 0.089488 1.899100  39 19 11
0.069517 0.116478 1.887908  79 47 15
0.072393 0.031629 1.905357  87 51 23
0.067572 0.122670 1.886162  23 15 3
0.067541 0.128951 1.886301  19 11 3
0.062220 0.026849 1.894442  19 11 0
0.051477 0.145288 1.878958  71 39 15
0.199497 -0.202458 1.841936  0 0 0
0.159302 -0.204253 1.854066  255 231 139
0.129860 0.087605 1.893133  55 27 11
0.126524 0.167918 1.873498  43 19 7
0.126524 0.167918 1.873498  43 19 7
0.130120 -0.003075 1.911145  135 87 43
0.122751 0.203771 1.868132  43 23 11
0.119361 0.218333 1.866092  43 19 11
0.121233 0.015450 1.909152  75 43 15
0.110794 0.162240 1.871916  19 11 3
0.098238 0.226100 1.875955  135 95 55
0.075915 0.321136 1.851982  99 55 31
0.085874 0.034251 1.910303  27 15 3
0.080084 0.178895 1.885241  75 39 15
0.073231 0.323426 1.849672  55 31 15
0.073231 0.323426 1.849672  55 31 15
0.078666 -0.074189 1.890468  131 75 39
0.061205 0.228773 1.876585  39 19 11
0.061205 0.228773 1.876585  39 19 11
0.051866 0.219981 1.875618  47 27 11
0.053468 0.122247 1.887876  91 47 23
0.049090 0.156983 1.875542  27 15 3
0.136426 0.036341 1.906675  43 23 7
0.132465 0.147448 1.877316  91 51 27
0.135028 0.028406 1.907953  75 43 19
0.128746 0.147327 1.875656  39 19 11
0.128051 0.020254 1.910025  83 51 19
0.128726 -0.025289 1.907143  63 31 15
0.122076 0.007343 1.910199  115 79 35
0.113020 -0.064300 1.905390  151 103 63
0.084279 0.113789 1.897521  67 43 19
0.081172 0.017406 1.912724  83 51 23
0.081192 -0.003364 1.915221  59 27 3
0.061797 0.260284 1.865213  71 39 15
0.065068 0.149060 1.885972  67 35 15
0.060197 0.128215 1.888379  115 59 19
0.060197 0.128215 1.888379  115 59 19
0.056455 0.120193 1.886855  27 11 3
0.053678 0.115967 1.885275  71 39 19
0.144998 -0.017082 1.905037  67 35 11
0.134326 0.119899 1.883178  83 47 23
0.134019 0.058619 1.901679  35 19 7
0.128179 0.186548 1.872511  87 51 27
0.124572 0.185208 1.872154  35 15 7
0.132471 -0.141426 1.862188  59 31 7
0.125009 0.040485 1.906035  47 23 7
0.125009 0.040485 1.906035  47 23 7
0.093946 -0.016193 1.916813  119 63 27
0.091873 0.020913 1.914291  87 55 23
0.091873 0.020913 1.914291  87 55 23
0.083333 0.080458 1.904374  75 43 19
0.083286 0.039979 1.909458  31 15 11
0.057553 0.076709 1.887220  27 11 3
0.053164 0.075209 1.887955  71 39 15
0.134943 -0.151962 1.864388  91 39 7
0.119667 0.153264 1.874995  67 43 23
0.098645 0.229692 1.873396  47 19 7
0.085172 0.060853 1.906899  75 43 19
0.083481 0.000664 1.916528  107 63 23
0.066593 0.142196 1.885729  71 39 15
0.061154 0.218893 1.880475  107 63 31
0.138514 0.062947 1.901052  87 55 23
0.105790 0.241613 1.868429  31 15 7
0.104544 0.248370 1.868448  67 39 19
0.099152 0.212925 1.874839  83 47 23
0.096221 0.006359 1.916955  111 67 31
0.087019 0.040865 1.911164  67 43 19
0.119854 0.139323 1.877088  83 51 19
0.113284 0.092613 1.885733  75 43 19
0.062111 0.057175 1.891909  27 11 3
0.057494 0.105900 1.883484  55 31 15
0.158282 0.002773 1.896612  47 27 7
0.137555 -0.017983 1.908368  71 39 15
0.123358 0.219295 1.865835  95 59 31
0.101690 -0.023824 1.915127  91 51 19
0.095972 0.019893 1.914747  39 19 7
0.066963 0.232769 1.875092  51 31 11
0.134108 0.090226 1.893942  87 51 27
0.126886 0.045316 1.904769  71 47 19
0.138717 -0.158065 1.868324  155 83 31
0.111482 -0.043675 1.912438  83 51 27
0.063635 0.247144 1.868853  43 23 11
0.126307 0.021423 1.909695  83 43 19
0.099091 -0.018475 1.916544  47 23 7
0.084095 0.134717 1.893735  47 27 11
0.067760 0.153345 1.885652  31 15 7
0.146471 -0.199287 1.830696  255 255 255
0.127152 -0.081666 1.896697  171 107 55
0.100124 -0.038076 1.915598  75 47 15
0.096187 -0.054228 1.908871  211 147 83
0.091258 0.007518 1.915863  47 27 15
0.082843 0.001279 1.917225  107 63 27
0.069785 0.170257 1.886066  63 31 15
0.119986 0.179995 1.872219  87 51 23
0.092464 -0.034964 1.914610  67 39 19
0.130693 -0.136230 1.859215  103 67 23
0.090064 -0.026091 1.914048  87 51 23
0.090007 -0.006951 1.917669  67 43 19
0.086700 0.017307 1.915009  43 23 7
0.120159 0.130279 1.879145  67 35 11
0.075082 0.174166 1.885442  19 11 3
0.105562 -0.032573 1.914795  99 63 27
0.140824 0.247203 1.843396  47 23 11
0.122959 -0.121323 1.862526  0 0 0
0.120696 -0.028197 1.911007  111 71 31
0.121559 -0.121999 1.862041  0 0 0
0.087403 0.033809 1.911215  31 19 7
0.087403 0.033809 1.911215  31 19 7
0.082487 0.123252 1.895215  75 43 19
0.125692 0.006902 1.909757  99 63 27
0.014604 0.290046 1.801997  103 55 31
0.159034 -0.177620 1.848657  247 143 63
0.142084 -0.181181 1.861292  255 255 255
0.144186 -0.188732 1.865648  0 0 0
0.079849 -0.105250 1.779068  0 0 0
0.105168 -0.054100 1.901711  83 55 27
0.133814 -0.145389 1.878212  167 95 35
0.070356 -0.081997 1.781096  255 203 119
0.100898 -0.129340 1.851359  239 155 87
0.045482 0.086445 1.845556  119 83 43
0.078083 -0.066649 1.889299  127 83 43
0.116413 -0.150506 1.868162  255 255 139
0.067620 -0.026046 1.893136  223 159 95
0.108558 -0.082333 1.892170  127 71 31
0.056829 -0.027456 1.841825  47 35 15
0.043029 0.015897 1.833626  159 115 71
0.114062 -0.148914 1.864277  223 135 51
0.124116 -0.114302 1.874463  135 91 47
0.069249 -0.035880 1.892286  103 63 31
0.080127 -0.061808 1.891795  215 159 95
0.119835 -0.150735 1.871618  255 251 135
0.076572 -0.058961 1.890120  115 79 35
0.089869 -0.038700 1.903953  103 59 27
0.072647 -0.051108 1.890475  127 83 35
0.075472 -0.019598 1.898955  183 139 75
0.070524 -0.079817 1.874689  223 147 79
0.079309 -0.070549 1.889011  159 95 51
0.085263 -0.052056 1.898243  251 175 111
0.077277 -0.048607 1.894288  195 139 79
0.065971 -0.054677 1.883192  107 67 35
0.114746 -0.073209 1.898203  231 159 91
0.072875 -0.067386 1.886343  255 215 135
0.058631 0.173648 1.874974  95 63 31
0.078000 -0.043095 1.895965  203 147 83
0.081995 -0.075955 1.888393  191 127 71
0.088325 -0.068369 1.894113  207 151 91
0.056090 -0.002692 1.878620  83 55 23
0.045919 0.049135 1.869063  23 15 7
0.051712 0.029209 1.873393  55 39 23
0.124991 -0.121377 1.872625  0 0 0
0.078561 -0.018101 1.899949  79 47 23
0.070771 -0.016252 1.895447  151 107 59
0.117834 -0.148850 1.868869  255 211 99
0.058486 -0.070953 1.862196  91 51 15
0.051187 0.029730 1.872603  39 23 11
0.074160 -0.025381 1.897039  175 123 71
0.044468 0.030429 1.836937  111 71 39
0.062547 0.100636 1.880554  83 55 27
0.075808 -0.075368 1.883881  207 127 63
0.113995 -0.138432 1.866072  139 79 31
0.063569 0.198899 1.876503  111 67 35
0.073890 -0.028104 1.896497  87 63 35
0.078853 -0.014818 1.900571  79 51 23
0.072794 -0.033474 1.895587  187 131 75
0.078102 0.005531 1.899243  31 19 7
0.077422 -0.051268 1.893692  147 103 51
0.046153 0.031554 1.866490  75 43 23
0.077233 0.026636 1.896564  99 63 23
0.030683 0.213922 1.843233  127 83 39
0.041975 0.038324 1.833702  35 19 7
0.048591 0.055846 1.872750  31 15 3
0.133312 0.246855 1.855047  0 0 0
0.052019 0.051411 1.874458  79 59 31
0.055464 -0.000348 1.878599  159 107 51
0.045543 0.026691 1.838672  51 31 15
0.082031 -0.044464 1.898843  163 111 63
0.122593 -0.143312 1.871986  175 107 39
0.113408 -0.117507 1.865121  59 39 15
0.106976 -0.119789 1.810290  63 39 11
0.037905 0.142269 1.826931  75 51 27
0.079518 -0.032548 1.899065  123 87 39
0.078765 -0.015160 1.900572  79 51 23
0.059357 0.005697 1.885409  131 91 51
0.048634 0.045841 1.872602  83 59 31
0.113931 -0.147182 1.864920  167 83 23
0.110981 -0.139102 1.864655  71 31 7
0.105797 -0.125041 1.861253  0 0 0
0.076965 -0.058864 1.890968  119 79 43
0.080146 -0.053957 1.893843  147 99 51
0.077701 -0.035909 1.898508  187 135 71
0.070955 -0.015815 1.895636  147 107 59
0.107117 -0.121827 1.861109  71 43 15
0.114284 -0.117974 1.866659  67 39 15
0.097462 -0.034756 1.906264  67 47 23
0.096213 -0.109776 1.859133  127 75 39
0.056184 0.040292 1.880416  91 55 23
0.112148 -0.129474 1.866291  167 111 55
0.091859 -0.108989 1.849521  143 87 39
0.057739 0.012319 1.882927  127 87 47
0.073030 0.020968 1.893837  43 23 7
0.102124 -0.123830 1.860373  0 0 0
0.127490 -0.006961 1.906465  131 91 43
0.128275 0.067348 1.896603  67 43 19
0.124140 -0.139655 1.872095  87 43 11
0.118753 -0.138985 1.869661  67 27 3
0.087123 -0.010354 1.905382  67 35 15
0.087123 -0.010354 1.905382  67 35 15
0.084595 0.042062 1.899477  51 27 11
0.106959 -0.122353 1.861759  75 43 15
0.088794 -0.066936 1.893980  159 103 55
0.082073 0.004986 1.903563  87 59 23
0.106301 -0.133821 1.861126  59 23 3
0.086475 -0.056670 1.897279  251 183 103
0.082332 0.023190 1.900980  95 59 27
0.083269 0.062917 1.895471  27 15 3
0.104507 -0.128600 1.861347  51 23 0
0.082496 -0.048682 1.898195  255 207 127
0.080202 -0.018915 1.901282  131 87 43
0.078946 -0.030901 1.899550  91 55 27
0.078670 -0.027428 1.899597  79 47 19
0.078271 -0.018179 1.899802  79 47 19
0.077435 0.023944 1.898149  55 31 11
0.079334 0.056520 1.892084  27 15 3
0.079427 -0.051390 1.895202  247 183 115
0.083613 0.257988 1.867263  67 35 19
0.076353 -0.015269 1.899252  139 99 51
0.079560 -0.053887 1.893467  147 107 55
0.079560 -0.053887 1.893467  147 107 55
0.081216 -0.067837 1.889765  255 199 123
0.077473 -0.042681 1.895971  191 139 79
0.074413 0.028871 1.894167  35 19 7
0.081208 -0.078054 1.884895  255 219 127
0.070547 -0.016016 1.895208  151 107 63
0.070547 -0.016016 1.895208  151 107 63
0.068413 0.032380 1.889533  63 39 19
0.072770 -0.067068 1.886155  255 199 123
0.067301 0.098200 1.881927  23 15 7
0.066451 -0.031322 1.891312  131 87 47
0.064149 0.012564 1.889028  67 43 23
0.063017 0.008486 1.889399  51 35 19
0.062950 0.178596 1.878264  43 23 11
0.069696 0.286913 1.855144  59 31 19
0.065363 -0.058079 1.881291  231 163 91
0.060949 0.157238 1.877813  75 47 19
0.060949 0.157238 1.877813  75 47 19
0.059145 0.015716 1.884824  59 39 15
0.058998 0.150478 1.876316  63 35 15
0.061228 -0.028825 1.881510  87 55 23
0.059766 -0.007513 1.883232  59 39 15
0.057525 0.058918 1.882213  47 27 7
0.063780 -0.066769 1.875632  199 139 79
0.057534 0.013226 1.883649  135 91 51
0.056329 0.201928 1.873599  79 55 31
0.055503 0.192660 1.872764  47 27 15
0.054760 0.169383 1.871474  23 11 3
0.050060 0.091048 1.880072  87 59 27
0.051197 0.185044 1.869840  75 47 23
0.053240 0.017052 1.874969  51 31 11
0.050966 0.029732 1.872423  39 23 11
0.048405 0.179376 1.868410  35 15 7
0.049836 0.044236 1.873090  31 15 7
0.049836 0.044236 1.873090  31 15 7
0.049135 0.028066 1.871960  139 95 51
0.044958 0.111179 1.875822  79 47 23
0.047441 0.188542 1.865827  83 47 23
0.046776 0.061991 1.872853  51 27 11
0.045965 0.054847 1.869821  67 43 19
0.036770 0.259095 1.852865  51 27 15
0.034205 0.215972 1.849055  83 47 19
0.041935 0.147922 1.831465  67 43 19
0.041935 0.147922 1.831465  67 43 19
0.040612 0.150482 1.829509  39 23 7
0.031613 0.217999 1.846218  39 23 15
0.029712 0.266447 1.845167  35 19 7
0.038553 0.155005 1.828766  99 63 27
0.028656 0.250374 1.845122  43 15 7
0.038474 0.140007 1.827475  39 23 11
0.028621 0.233234 1.843055  51 27 11
0.026798 0.254158 1.844564  51 23 7
0.038359 0.043982 1.830283  51 27 7
0.024238 0.259273 1.842285  55 19 11
0.020775 0.263581 1.840390  55 23 7
0.124132 0.072243 1.893700  27 15 3
0.111288 -0.132564 1.865779  79 39 15
0.112383 -0.146214 1.862504  227 151 63
0.089967 -0.063692 1.895932  155 91 51
0.085743 0.067053 1.896500  59 43 15
0.082070 0.019331 1.900885  39 19 0
0.083116 0.046096 1.897254  79 47 19
0.083315 -0.055272 1.896121  127 75 39
0.078754 -0.011561 1.900222  79 51 27
0.079912 0.095494 1.890385  87 55 27
0.081455 0.137817 1.884471  31 19 7
0.078967 0.060169 1.891628  23 15 7
0.078967 0.060169 1.891628  23 15 7
0.076769 0.031655 1.895394  75 51 19
0.075542 0.018569 1.897075  79 51 19
0.076645 -0.038159 1.896220  107 71 35
0.077503 -0.051831 1.893375  155 103 51
0.077503 -0.051831 1.893375  155 103 51
0.074029 -0.025173 1.896979  159 119 71
0.077495 -0.061949 1.890633  119 75 43
0.074907 0.063939 1.887938  11 7 0
0.072765 -0.017269 1.896600  95 63 31
0.074861 0.105201 1.884491  31 15 3
0.070923 0.023020 1.891943  27 15 3
0.070641 0.093375 1.884445  63 43 15
0.068929 -0.020925 1.894199  91 59 27
0.068556 0.044888 1.887297  27 15 3
0.067914 0.083278 1.883194  79 55 23
0.062878 0.020415 1.886774  75 47 23
0.062002 0.129386 1.879273  83 47 23
0.061639 0.013791 1.887321  95 71 35
0.068968 -0.075713 1.875175  127 67 35
0.060183 0.182020 1.876059  87 55 31
0.060015 0.043741 1.884324  71 47 23
0.059351 0.012457 1.885303  51 31 11
0.059370 0.167464 1.874936  31 15 7
0.056262 0.113253 1.882379  79 39 15
0.052803 0.196373 1.870806  103 67 35
0.054083 0.018470 1.878162  123 87 47
0.049422 0.118871 1.875992  31 15 3
0.076815 -0.114732 1.829665  63 35 11
0.048711 0.189175 1.867824  43 23 11
0.048577 0.060368 1.873957  131 87 43
0.047013 0.071002 1.875484  55 31 15
0.046086 0.043223 1.868746  39 23 7
0.041233 0.205446 1.855989  127 87 47
0.054984 -0.027584 1.838206  71 39 19
0.040244 0.218314 1.854662  75 43 19
0.053193 -0.025022 1.836685  135 95 47
0.036083 0.256234 1.852940  95 55 31
0.037050 0.269492 1.850084  83 43 19
0.034785 0.218791 1.849357  43 27 11
0.030145 0.234813 1.844800  71 43 23
0.029842 0.227302 1.844601  43 19 7
0.037120 0.095620 1.827871  71 43 15
0.128251 0.124326 1.883683  83 55 27
0.120864 0.025256 1.902781  39 23 3
0.122179 0.078357 1.891256  35 19 7
0.118077 -0.123752 1.868925  111 75 27
0.114357 -0.117752 1.866300  71 43 15
0.109200 -0.109146 1.868382  163 99 55
0.085561 0.063257 1.896887  63 35 15
0.085088 -0.033992 1.901983  171 115 63
0.082766 0.085541 1.892355  31 15 3
0.083932 0.138876 1.886155  71 47 19
0.081118 -0.011956 1.901713  127 87 43
0.087943 0.242870 1.869570  35 15 7
0.087943 0.242870 1.869570  35 15 7
0.084174 -0.064048 1.892517  123 79 39
0.075605 0.042833 1.890722  19 7 0
0.078685 -0.075126 1.884866  255 251 155
0.078685 -0.075126 1.884866  255 251 155
0.071006 0.004154 1.896119  107 71 35
0.072709 0.081059 1.886699  43 23 11
0.070737 -0.018908 1.895358  127 83 47
0.068959 0.005578 1.894280  59 39 15
0.069527 0.076037 1.885092  63 39 19
0.067977 0.027965 1.889468  67 39 15
0.060589 0.194546 1.875849  31 15 7
0.060589 0.194546 1.875849  31 15 7
0.059980 0.055306 1.884132  47 27 11
0.059400 0.136919 1.877196  71 39 19
0.066537 0.296733 1.851666  103 59 35
0.064161 -0.063299 1.877425  215 151 79
0.056132 0.182629 1.872702  83 59 31
0.054806 0.175364 1.870910  15 11 3
0.053999 0.179377 1.871255  27 15 3
0.048872 0.189096 1.867709  39 19 7
0.048360 0.055992 1.872428  39 19 7
0.048360 0.055992 1.872428  39 19 7
0.045903 0.159136 1.869862  43 23 7
0.045541 0.182560 1.866859  43 23 7
0.042374 0.223550 1.858706  107 75 43
0.053000 -0.043224 1.836894  87 59 27
0.032499 0.258635 1.847710  39 15 7
0.041065 0.066296 1.837788  123 83 39
0.040399 0.138158 1.829441  95 63 35
0.038586 0.116053 1.826786  59 35 15
0.024244 0.253325 1.840950  91 55 27
0.024139 0.250850 1.839964  47 23 11
0.020957 0.251019 1.838265  99 63 31
0.130111 0.063141 1.898500  91 59 31
0.119936 0.076201 1.891266  79 47 23
0.116942 -0.148457 1.868524  255 195 91
0.088229 0.025068 1.902009  71 47 19
0.084823 0.018934 1.902719  87 55 23
0.085939 0.143364 1.885982  43 23 7
0.087331 -0.063919 1.894170  255 215 123
0.081311 -0.000516 1.902905  115 83 35
0.080687 -0.025376 1.901300  151 103 55
0.076035 -0.030229 1.897833  183 135 75
0.073863 0.021018 1.895901  31 15 7
0.075413 0.095062 1.886523  63 39 15
0.071919 0.011299 1.895169  107 71 35
0.068024 -0.016914 1.893858  79 47 23
0.068437 0.022738 1.889921  75 51 19
0.068437 0.022738 1.889921  75 51 19
0.067481 -0.025778 1.892935  211 147 83
0.058710 0.177841 1.874495  35 19 3
0.058182 0.174029 1.874602  115 79 43
0.057173 0.051473 1.881497  43 27 11
0.081042 -0.113167 1.832410  63 39 15
0.053968 0.163533 1.871952  23 11 3
0.047290 0.112903 1.876567  35 19 11
0.046635 0.122570 1.874145  75 47 19
0.043295 0.201133 1.858406  47 23 11
0.041506 0.077302 1.841330  123 83 47
0.041506 0.077302 1.841330  123 83 47
0.038991 0.040172 1.831194  91 55 19
0.026586 0.245863 1.842862  47 23 11
0.026394 0.251219 1.843306  95 55 27
0.026394 0.251219 1.843306  95 55 27
0.036148 0.045407 1.828457  99 67 31
0.121663 0.056653 1.897232  99 63 27
0.086491 0.006414 1.905071  75 43 15
0.078249 -0.001487 1.899686  55 31 11
0.078822 0.039071 1.895811  27 11 3
0.071562 0.065824 1.886738  67 39 15
0.063270 0.043951 1.885867  27 15 7
0.057108 0.009849 1.881692  151 103 63
0.057108 0.009849 1.881692  151 103 63
0.054050 0.203250 1.871781  31 15 7
0.052999 0.036866 1.875644  31 15 3
0.051268 0.057934 1.875045  31 15 7
0.050230 0.063168 1.875918  35 15 3
0.046755 0.052590 1.870490  147 95 51
0.034060 0.229517 1.848490  31 11 3
0.115752 -0.064764 1.900309  163 99 51
0.096701 0.012900 1.906425  91 59 19
0.111850 -0.140344 1.864501  67 27 3
0.083909 -0.027254 1.903166  107 79 43
0.084256 0.100453 1.891392  51 23 11
0.080560 0.028084 1.899389  55 31 7
0.081026 -0.034321 1.900026  79 51 23
0.081026 -0.034321 1.900026  79 51 23
0.079511 -0.007117 1.900352  67 39 19
0.073778 0.099528 1.884729  19 11 0
0.071137 0.015308 1.894005  83 59 23
0.061543 0.148793 1.878340  47 31 11
0.060905 0.171068 1.876552  31 19 7
0.067098 -0.070419 1.876973  255 187 107
0.054822 0.059881 1.881072  123 91 47
0.054413 0.054624 1.878591  99 51 19
0.039675 0.271040 1.850925  55 27 15
0.032060 0.240617 1.848496  95 55 27
0.124327 0.031554 1.903864  115 79 35
0.129566 -0.140678 1.875040  119 63 19
0.083464 -0.005842 1.903318  111 67 31
0.082694 0.052122 1.897414  79 51 19
0.089542 0.236567 1.871676  47 23 11
0.081962 0.039954 1.898344  75 47 19
0.074904 0.086959 1.888001  75 47 19
0.074254 0.046777 1.889899  23 15 3
0.070151 0.080211 1.884301  83 51 19
0.065924 0.011695 1.891211  103 71 35
0.051459 0.205826 1.870162  87 51 27
0.046524 0.108420 1.876976  39 27 11
0.122064 0.136445 1.879083  19 11 3
0.120517 0.149820 1.878454  83 51 23
0.100923 0.012177 1.906842  43 27 7
0.119085 -0.109206 1.872352  0 0 0
0.087424 -0.048766 1.900823  183 135 75
0.078472 0.066801 1.892444  71 43 19
0.078472 0.066801 1.892444  71 43 19
0.076477 -0.045761 1.894710  99 67 35
0.076477 -0.045761 1.894710  99 67 35
0.065293 0.030897 1.887607  35 19 7
0.037174 0.259480 1.853756  51 31 15
0.126020 0.080468 1.892128  75 47 23
0.081010 0.089798 1.891454  79 51 23
0.016616 0.267641 1.837620  63 31 15
0.072547 -0.037084 1.894653  191 139 71
0.108474 -0.122310 1.862032  67 43 15
0.108474 -0.122310 1.862032  67 43 15
0.083332 -0.048551 1.898590  243 175 99
0.083332 -0.048551 1.898590  243 175 99
0.063936 0.055063 1.885288  75 47 19
0.059601 0.169484 1.875343  31 15 7
0.059601 0.169484 1.875343  31 15 7
0.083992 0.072953 1.894081  23 15 7
0.027073 0.272302 1.843711  63 31 15
0.125330 -0.113540 1.874639  99 59 27
0.119687 -0.146177 1.869710  127 67 19
0.111996 -0.129287 1.865909  171 115 59
0.112281 -0.140662 1.864738  51 27 3
0.086789 -0.005666 1.905670  55 27 7
0.108649 -0.122712 1.862229  71 47 15
0.084500 -0.034790 1.903975  179 123 63
0.084605 0.032522 1.899630  79 47 19
0.077446 -0.001919 1.900631  55 35 11
0.075452 -0.008982 1.898555  143 95 47
0.076786 -0.046119 1.894833  99 67 35
0.079153 -0.074588 1.885287  255 243 147
0.060203 0.047413 1.883641  79 43 15
0.059674 0.169344 1.875181  31 15 7
0.056255 0.040519 1.880151  91 55 23
0.054082 0.191023 1.870544  103 63 31
0.046291 0.098717 1.876779  59 35 11
0.041296 0.115582 1.832004  31 15 7
0.119331 -0.109930 1.871998  0 0 0
0.085331 0.045770 1.898418  79 47 15
0.083347 -0.012118 1.902761  135 91 43
0.081896 0.006113 1.902823  83 55 23
0.081896 0.006113 1.902823  83 55 23
0.081542 0.097294 1.890318  71 39 11
0.087738 -0.080839 1.885824  255 191 115
0.077800 0.005054 1.899176  39 27 11
0.075501 0.080874 1.889351  87 55 19
0.073076 0.075134 1.887981  31 19 7
0.067606 -0.066805 1.881339  123 75 39
0.061177 0.192340 1.876088  35 15 7
0.055041 -0.037176 1.839431  55 39 19
0.181390 -0.139962 1.863476  0 0 0
0.083701 0.071821 1.894290  31 15 7
0.076533 -0.060667 1.890328  183 127 75
0.061292 0.024602 1.885186  87 51 23
0.082556 -0.000950 1.902695  107 75 31
0.073579 -0.002172 1.897844  123 83 35
0.072760 -0.065395 1.885483  255 183 111
0.055662 0.108982 1.881240  95 51 23
0.032988 0.276181 1.845089  115 71 35
0.080651 0.083464 1.892553  47 27 11
0.055239 0.121225 1.880620  47 23 11
0.072491 0.020687 1.894014  47 27 11
0.069622 0.103399 1.883137  79 47 19
0.029000 0.263335 1.845341  43 19 7
0.076168 0.100975 1.887120  51 31 11
0.070536 0.013460 1.890676  75 51 23
0.145261 -0.183554 1.865142  0 0 0
0.028132 0.263108 1.845248  35 15 7
0.071424 0.082470 1.890603  31 23 7
0.058184 0.114721 1.881408  95 55 23
0.048207 0.115724 1.871049  31 19 7
0.069221 -0.037437 1.890681  163 107 55
0.171726 -0.138939 1.860905  255 255 187
0.128419 -0.195708 1.842979  0 0 0
0.149287 -0.152363 1.862741  255 235 131
0.096994 -0.122440 1.842643  255 255 183
0.041824 0.025872 1.814038  199 139 83
0.063145 -0.071090 1.865605  255 203 107
0.065814 -0.069290 1.872471  255 219 111
0.090481 -0.111891 1.846194  255 255 131
0.087418 -0.077791 1.779130  255 255 147
0.093185 -0.117710 1.850956  163 91 43
0.099913 -0.124178 1.850356  43 23 7
0.086439 -0.111547 1.844296  255 255 147
0.106065 -0.151471 1.831741  139 79 23
0.072144 -0.087657 1.814969  255 215 131
0.086987 -0.116501 1.821840  255 255 183
0.060228 -0.076708 1.852222  191 103 47
0.055215 -0.070765 1.838099  255 211 115
0.056749 -0.007028 1.862207  179 119 63
0.111617 -0.177099 1.843700  0 0 0
0.104956 -0.129153 1.859182  103 51 23
0.073435 -0.085459 1.857529  255 239 139
0.069404 -0.069796 1.876872  211 151 87
0.058665 -0.032123 1.790605  55 31 11
0.058646 -0.080625 1.835490  255 183 103
0.058910 -0.067526 1.859081  195 131 67
0.055310 -0.002586 1.788916  119 87 47
0.090932 -0.117192 1.841905  255 235 127
0.058569 -0.016763 1.843244  39 27 15
0.057422 -0.068614 1.854722  103 63 27
0.057406 -0.030815 1.788394  207 131 59
0.057754 -0.039382 1.807935  79 55 27
0.057312 -0.006788 1.879713  71 39 15
0.118094 -0.105562 1.871896  0 0 0
0.075018 -0.106679 1.825762  115 71 31
0.066102 -0.049103 1.885935  215 139 79
0.084198 -0.115933 1.818106  255 255 155
0.043948 0.021172 1.828119  87 47 15
0.092134 -0.102454 1.854990  0 0 0
0.057265 -0.033953 1.787300  203 143 79
0.084486 -0.043773 1.902609  183 123 67
0.105828 -0.132269 1.860815  251 159 87
0.068780 -0.061407 1.881255  151 95 47
0.132438 -0.158936 1.839315  255 171 83
0.048708 0.042591 1.796051  135 95 47
0.133346 -0.162333 1.836959  255 255 179
0.055313 -0.041190 1.818576  159 115 55
0.058088 -0.011239 1.846282  19 7 0
0.047802 0.015054 1.825816  31 19 11
0.038149 0.310780 1.765716  159 91 47
0.077661 -0.095842 1.833117  87 51 19
0.064233 -0.034935 1.886766  235 175 99
0.100513 -0.120330 1.859747  155 83 35
0.079464 -0.096690 1.833697  0 0 0
0.057605 -0.034980 1.787626  167 115 59
0.049381 0.024864 1.840187  107 75 43
0.053423 -0.061066 1.824173  71 31 7
0.063145 -0.039038 1.882959  83 55 23
0.048424 0.028592 1.866295  59 35 15
0.057680 -0.002485 1.875753  183 127 71
0.055346 -0.000605 1.862741  55 27 7
0.057938 -0.011927 1.865631  159 107 47
0.047399 0.024990 1.835298  119 79 39
0.014405 0.262295 1.821060  147 87 39
0.058540 0.009044 1.885668  151 103 55
0.044169 0.077499 1.840244  123 83 43
0.054217 0.000902 1.785957  31 27 11
0.054488 -0.057559 1.819075  123 67 27
0.044167 0.023213 1.830519  95 59 31
0.051734 0.010635 1.865416  183 127 67
0.052782 -0.014664 1.833732  59 31 11
0.052402 -0.002217 1.837004  99 71 31
0.050346 0.008597 1.826651  107 91 55
0.059998 -0.021372 1.883349  179 119 67
0.053594 -0.022673 1.831968  63 39 15
0.063982 -0.076148 1.860414  179 107 47
0.058294 -0.018822 1.850454  47 27 11
0.058346 -0.014793 1.849680  123 83 39
0.048028 0.016469 1.834774  51 27 15
0.053715 0.011179 1.846637  23 15 3
0.056740 -0.023730 1.787554  63 35 11
0.056452 -0.004942 1.800900  19 11 3
0.051429 0.010626 1.863555  115 75 39
0.053511 0.007140 1.795753  107 79 51
0.059752 -0.063323 1.863146  175 119 59
0.046612 0.023840 1.834482  147 111 63
0.053115 -0.011538 1.835554  163 107 51
0.055811 -0.004953 1.856643  55 31 11
0.056823 0.015550 1.882201  131 91 43
0.060410 -0.032365 1.877943  167 123 59
0.055386 -0.072470 1.833209  211 131 59
0.061429 -0.056441 1.871261  147 91 43
0.038791 0.031580 1.822401  123 67 27
0.044152 0.066994 1.835977  127 83 39
0.055010 -0.030075 1.832340  67 47 23
0.059487 -0.016522 1.875274  119 75 35
0.071178 -0.069234 1.880858  255 239 139
0.056422 -0.073865 1.841034  243 175 91
0.056103 -0.068199 1.841568  103 63 31
0.060803 -0.028490 1.879777  151 111 59
0.053576 -0.053363 1.827686  91 59 27
0.107373 -0.148814 1.825947  191 99 31
0.059601 -0.017575 1.859095  119 87 47
0.054028 0.004624 1.793683  59 39 19
0.056567 -0.017543 1.837833  59 35 15
0.042910 0.068613 1.832977  23 15 3
0.054735 -0.017241 1.811434  63 35 11
0.053570 0.020527 1.878747  139 91 47
0.049781 0.014111 1.837405  75 47 19
0.057427 -0.013890 1.855963  115 75 31
0.076869 -0.098047 1.826400  83 55 19
0.050438 0.056708 1.874694  47 27 11
0.060170 -0.011572 1.884523  75 43 19
0.044935 0.024750 1.830953  79 55 31
0.058295 0.007539 1.883936  71 43 15
0.061826 -0.029911 1.883047  63 35 15
0.039706 0.032491 1.823757  79 43 11
0.019652 0.251925 1.827725  131 83 39
0.061449 -0.028072 1.884120  103 71 31
0.060308 -0.027800 1.865356  55 35 15
0.058710 -0.009096 1.882020  67 39 15
0.054413 -0.049355 1.842235  103 67 31
0.056512 -0.004267 1.878638  103 63 23
0.036727 0.195977 1.846737  127 83 39
0.045198 0.070518 1.841323  39 31 15
0.046020 0.057146 1.839174  115 83 43
0.040731 0.028016 1.823678  103 55 27
0.056327 -0.048654 1.857444  183 123 59
0.061374 -0.031780 1.880443  91 59 23
0.024678 0.244404 1.836383  111 67 35
0.081356 -0.103569 1.823930  0 0 0
0.092177 -0.117025 1.833378  255 219 115
0.094429 -0.111881 1.853068  47 27 7
0.081935 -0.101869 1.863600  55 27 7
0.054946 -0.068266 1.840090  251 179 99
0.057801 -0.055454 1.861123  99 59 19
0.071369 -0.039225 1.894043  175 123 71
0.055103 -0.031138 1.807280  199 139 75
0.060060 -0.031664 1.796580  127 91 51
0.060116 -0.016687 1.884372  179 135 79
0.052392 -0.012070 1.833427  59 31 3
0.053691 -0.011917 1.811542  83 67 35
0.049830 0.009609 1.822433  47 43 27
0.045032 0.031617 1.832453  83 59 27
0.048062 0.052473 1.871770  75 43 27
0.036606 0.052246 1.820810  119 79 39
0.029965 0.206880 1.837690  171 111 59
0.095073 -0.101930 1.858901  115 63 23
0.065353 -0.068496 1.872421  255 223 127
0.054268 -0.062533 1.844107  75 47 23
0.053764 -0.060295 1.840695  119 71 31
0.061632 -0.056210 1.872609  159 95 43
0.059850 -0.027863 1.878194  87 51 19
0.053481 -0.022903 1.831230  79 55 27
0.053128 -0.013857 1.818971  43 35 15
0.060664 -0.011302 1.886567  131 99 55
0.048048 0.013983 1.834149  139 107 63
0.022162 0.252383 1.835403  87 51 31
0.134484 -0.167367 1.854027  255 207 115
0.079431 -0.095298 1.835522  151 95 47
0.056716 -0.071760 1.842876  131 83 39
0.059484 -0.066274 1.859943  255 183 95
0.059472 -0.065525 1.862414  111 67 31
0.055046 -0.062538 1.843498  79 43 19
0.073730 -0.041229 1.895162  91 55 23
0.059844 -0.020394 1.857330  47 27 11
0.056896 -0.010859 1.857495  163 115 59
0.050528 0.003156 1.824082  67 55 31
0.053330 0.005254 1.869101  75 51 23
0.057867 0.013220 1.884152  71 43 19
0.046622 0.060750 1.845742  127 91 51
0.049148 0.200559 1.805359  107 67 31
0.054920 -0.051883 1.814252  211 143 67
0.070514 -0.038204 1.893800  155 119 63
0.063224 -0.023833 1.890807  167 111 55
0.050462 -0.016910 1.826855  67 43 23
0.053184 -0.012899 1.807894  83 63 35
0.047455 0.016652 1.834894  47 23 11
0.116282 -0.137837 1.872186  123 63 19
0.051871 0.010590 1.865509  191 135 75
0.029004 0.220169 1.835612  59 31 15
0.132270 -0.171483 1.861028  255 255 255
0.112618 -0.136196 1.867190  255 163 67
0.062491 -0.016927 1.889618  67 39 11
0.062766 -0.019331 1.888423  147 103 47
0.061807 -0.021660 1.887401  107 67 31
0.061807 -0.021660 1.887401  107 67 31
0.060840 -0.005461 1.887430  119 87 43
0.062827 -0.030877 1.886655  139 91 43
0.060870 -0.018889 1.885970  99 59 27
0.106853 -0.135237 1.853710  139 55 15
0.061083 -0.037326 1.880031  91 55 15
0.057785 -0.005078 1.881516  167 115 67
0.056686 0.036577 1.881016  79 55 27
0.058028 0.158774 1.876250  39 19 7
0.055525 0.028638 1.880882  47 27 11
0.099460 -0.121820 1.855191  59 19 3
0.054806 0.049078 1.879647  71 47 19
0.057868 -0.013810 1.877332  107 63 31
0.055505 0.001008 1.878563  83 51 19
0.054573 0.037886 1.878167  75 43 15
0.061172 -0.054800 1.874003  115 67 31
0.059335 -0.015476 1.872409  47 27 11
0.057570 -0.011179 1.872760  135 91 43
0.063335 -0.069124 1.867304  123 67 27
0.060457 -0.025308 1.864431  55 31 11
0.043465 0.110278 1.871562  67 35 15
0.058772 -0.047461 1.864353  155 107 47
0.045641 0.057813 1.869228  131 91 47
0.059068 -0.061095 1.861873  123 91 47
0.062993 0.287284 1.847446  51 23 7
0.048094 0.021443 1.865041  139 95 43
0.103569 -0.152716 1.829959  255 151 55
0.043436 0.174718 1.860593  43 23 11
0.054238 0.001004 1.855256  175 123 71
0.043177 0.212920 1.855880  47 23 7
0.057367 -0.068372 1.854182  91 51 19
0.043653 0.140719 1.854461  99 63 35
0.048526 0.077241 1.848452  27 15 7
0.055149 -0.062525 1.847458  179 127 67
0.047346 0.065038 1.848299  31 15 7
0.046678 0.086643 1.844348  119 91 43
0.047425 0.092696 1.843992  63 35 11
0.052045 0.009933 1.842012  127 95 51
0.046623 0.077404 1.843212  27 11 3
0.054536 -0.046719 1.841234  171 111 51
0.046168 0.070177 1.842808  27 15 7
0.046025 0.073317 1.842354  23 11 3
0.046139 0.085759 1.842389  31 15 3
0.054579 -0.064569 1.839999  195 139 71
0.053453 -0.054746 1.840733  91 47 19
0.053453 -0.054746 1.840733  91 47 19
0.045635 0.059259 1.841942  55 35 15
0.044514 0.097236 1.840100  39 19 3
0.058376 -0.079957 1.835104  203 127 67
0.033457 0.211561 1.842616  51 27 11
0.050313 0.009666 1.835784  23 11 3
0.042714 0.093041 1.837709  35 19 3
0.032526 0.208948 1.841802  147 91 47
0.044757 0.109389 1.835273  75 43 15
0.050801 0.003615 1.833340  23 11 3
0.047742 0.016707 1.834771  47 23 11
0.052337 -0.002847 1.831236  11 7 3
0.032156 0.202822 1.839026  83 47 27
0.051930 -0.013414 1.831106  111 83 43
0.050435 0.008777 1.830187  19 7 0
0.041108 0.089690 1.834271  87 59 23
0.044240 0.162620 1.829792  91 63 35
0.057018 -0.074486 1.826968  255 223 127
0.044492 0.035078 1.831459  31 15 0
0.042994 0.127456 1.827985  123 79 43
0.041048 0.104250 1.825611  71 47 23
0.042967 0.182873 1.821471  103 63 31
0.074174 -0.100575 1.805126  255 235 143
0.023950 0.237254 1.831246  99 63 31
0.039667 0.035417 1.825106  55 31 15
0.039667 0.035417 1.825106  55 31 15
0.039427 0.038103 1.824084  119 75 35
0.038533 0.043133 1.824416  111 71 35
0.021216 0.242745 1.828631  51 23 11
0.049996 0.209345 1.803347  47 27 15
0.035530 0.115083 1.816189  103 59 27
0.035712 0.108536 1.816070  55 31 15
0.017225 0.254847 1.824841  99 51 27
0.056194 -0.006088 1.800840  11 7 0
0.057107 -0.030519 1.787943  255 175 87
0.055649 -0.019171 1.785624  127 79 35
0.055714 -0.023722 1.783454  167 119 59
0.037912 0.311113 1.765431  163 99 51
0.071683 0.019415 1.897042  47 23 7
0.060890 0.174362 1.877082  99 67 31
0.060890 0.174362 1.877082  99 67 31
0.058406 0.007908 1.883476  71 47 19
0.060073 -0.032204 1.878174  167 123 59
0.055124 -0.000700 1.876043  183 135 71
0.052974 0.014914 1.873878  51 27 11
0.045559 0.078208 1.874683  43 31 11
0.062740 -0.070504 1.865364  255 239 127
0.043018 0.105531 1.872042  51 27 11
0.045243 0.069482 1.870887  95 59 27
0.043233 0.090636 1.869864  91 59 23
0.043026 0.150353 1.867599  59 31 15
0.056595 -0.006669 1.861939  167 115 59
0.056595 -0.006669 1.861939  167 115 59
0.059079 -0.064558 1.861278  87 47 23
0.059271 -0.027628 1.859102  71 39 15
0.043415 0.158471 1.864692  51 27 15
0.043450 0.074068 1.866352  111 75 39
0.042717 0.098087 1.865682  43 23 7
0.044658 0.209335 1.859149  43 23 11
0.044658 0.209335 1.859149  43 23 11
0.058491 -0.021843 1.853995  135 91 47
0.059678 0.294593 1.843573  75 47 19
0.044458 0.053758 1.861253  31 19 3
0.042624 0.217014 1.855203  35 19 7
0.041277 0.186479 1.855303  67 39 19
0.039926 0.182341 1.854226  63 35 15
0.041101 0.204906 1.851955  51 31 15
0.055697 0.002868 1.846344  27 15 7
0.079256 -0.107767 1.831729  79 43 11
0.046861 0.084080 1.844600  27 19 7
0.034398 0.223018 1.844568  91 47 19
0.055030 -0.070083 1.837887  255 199 111
0.053570 -0.058307 1.838801  171 111 55
0.053570 -0.058307 1.838801  171 111 55
0.053703 -0.063047 1.837569  135 87 47
0.045252 0.057243 1.838955  119 83 47
0.043466 0.095258 1.838826  95 63 31
0.043466 0.095258 1.838826  95 63 31
0.030390 0.255282 1.842763  43 19 11
0.053019 -0.014304 1.833465  59 35 15
0.042526 0.079487 1.837688  59 31 7
0.044081 0.108464 1.832578  27 15 3
0.029313 0.219207 1.839574  111 63 35
0.043312 0.105092 1.829738  63 43 23
0.028105 0.224144 1.835756  59 27 11
0.051139 -0.019309 1.826129  207 147 75
0.041914 0.102035 1.827821  23 11 3
0.025795 0.239281 1.835565  99 55 27
0.056436 -0.074789 1.822304  255 219 127
0.042778 0.125747 1.826171  39 23 11
0.024905 0.242257 1.834309  59 27 15
0.040678 0.097368 1.826135  75 51 23
0.025373 0.231763 1.833350  55 23 11
0.040076 0.107474 1.824902  79 43 19
0.040312 0.084408 1.824863  59 39 15
0.039958 0.102554 1.823886  31 19 7
0.039158 0.096994 1.823896  31 15 7
0.039158 0.096994 1.823896  31 15 7
0.023161 0.240899 1.829842  47 19 7
0.038268 0.052068 1.822461  31 11 0
0.021207 0.240383 1.827301  123 79 47
0.035478 0.084792 1.819818  111 79 39
0.036654 0.103997 1.818173  79 47 19
0.036161 0.036521 1.819003  103 59 23
0.053877 0.004924 1.793336  75 51 35
0.045432 0.240436 1.792590  39 19 7
0.046963 0.052393 1.795112  103 63 27
0.054687 -0.013381 1.785058  155 107 51
0.054687 -0.013381 1.785058  155 107 51
0.119732 -0.140057 1.873074  255 247 123
0.064018 0.021365 1.889060  27 19 3
0.070677 -0.063486 1.883816  247 179 103
0.062292 0.153776 1.880306  59 31 11
0.060998 0.151260 1.878783  43 27 11
0.058679 -0.008755 1.881898  79 47 19
0.059570 -0.026293 1.876225  139 91 47
0.053633 0.187466 1.871493  115 75 39
0.061594 -0.056863 1.870668  155 99 51
0.045674 0.082201 1.874324  43 23 7
0.045351 0.132784 1.871002  87 47 19
0.043961 0.091016 1.872704  43 27 11
0.063631 -0.075613 1.860195  163 91 31
0.046117 0.050913 1.868795  23 11 0
0.057962 -0.049721 1.861191  75 43 19
0.044729 0.054572 1.865075  23 11 3
0.044193 0.044560 1.863173  107 67 31
0.056311 -0.043409 1.852039  175 143 67
0.043101 0.145065 1.855127  43 19 7
0.053594 0.011602 1.846329  23 11 3
0.055281 -0.048414 1.845587  139 99 39
0.035444 0.226095 1.845205  39 15 7
0.047406 0.029659 1.837001  43 31 11
0.053665 -0.022311 1.831687  71 47 19
0.044349 0.063553 1.835507  159 115 59
0.045468 0.160042 1.831779  31 15 7
0.043058 0.063557 1.832957  43 23 11
0.042211 0.068642 1.833036  23 11 3
0.043999 0.040612 1.831577  31 15 7
0.024652 0.251086 1.838332  87 51 23
0.025076 0.236642 1.835101  47 19 11
0.051332 -0.020667 1.820098  191 139 75
0.056707 -0.070825 1.814351  255 255 155
0.037802 0.091116 1.822703  35 19 7
0.054896 -0.062316 1.814222  83 35 11
0.053270 -0.014044 1.811003  99 75 43
0.015295 0.262749 1.830478  79 39 19
0.022872 0.233692 1.824222  67 35 19
0.014403 0.259806 1.820198  75 27 11
0.046971 0.232340 1.793256  43 19 7
0.053273 0.020772 1.788207  39 27 15
0.055169 -0.002065 1.786137  147 119 67
0.103647 -0.130263 1.854239  119 59 19
0.048647 0.033681 1.869467  87 55 31
0.061307 0.292336 1.845758  59 31 11
0.061514 -0.076279 1.855519  107 51 19
0.050827 0.020875 1.841764  111 71 31
0.049836 0.014843 1.836965  59 35 11
0.046860 0.151065 1.832557  103 67 35
0.041822 0.087800 1.836906  55 35 15
0.043070 0.103015 1.833519  27 19 3
0.019906 0.244076 1.824377  83 47 19
0.110198 -0.110935 1.864801  0 0 0
0.062637 -0.058430 1.872905  91 59 27
0.048525 0.041439 1.871384  31 15 3
0.060259 -0.023371 1.861703  127 87 47
0.058111 -0.016072 1.854138  147 111 55
0.041213 0.197352 1.853957  83 51 23
0.038325 0.179997 1.849205  55 31 15
0.056014 -0.011641 1.839042  35 19 7
0.056008 -0.073390 1.837426  175 107 47
0.044836 0.058739 1.836164  47 31 15
0.051983 -0.016753 1.830201  135 95 55
0.041783 0.107316 1.827626  35 23 11
0.039703 0.033057 1.823648  83 47 19
0.037470 0.101295 1.819856  43 27 11
0.057162 0.047204 1.881976  31 19 0
0.056107 0.004927 1.880832  59 43 19
0.059291 -0.055308 1.865733  163 111 55
0.059291 -0.055308 1.865733  163 111 55
0.045629 0.206725 1.861354  99 67 35
0.058018 -0.018243 1.850236  47 27 11
0.055606 -0.041576 1.844715  167 115 55
0.043001 0.103131 1.837601  87 55 27
0.046658 0.032739 1.835323  119 75 39
0.044150 0.035211 1.831942  43 23 11
0.042187 0.179379 1.826353  39 23 11
0.040391 0.067341 1.829750  95 55 19
0.040391 0.067341 1.829750  95 55 19
0.041296 0.028222 1.823827  95 51 27
0.038094 0.085847 1.822808  35 19 11
0.055217 -0.014411 1.801961  115 83 43
0.063004 -0.030277 1.888303  139 87 39
0.060754 -0.021024 1.883260  191 127 67
0.059590 -0.047499 1.871755  183 119 59
0.044539 0.085149 1.872364  95 59 27
0.048387 0.024835 1.864812  59 39 19
0.042240 0.097533 1.832278  87 55 23
0.017363 0.258687 1.832884  163 99 47
0.074376 0.029084 1.898521  95 63 23
0.099514 -0.122599 1.854866  111 67 31
0.046119 0.061955 1.844379  123 75 35
0.042759 0.084509 1.838866  95 59 27
0.047212 0.025341 1.835182  123 87 43
0.030844 0.212064 1.841665  55 27 11
0.045139 0.129365 1.831989  47 27 15
0.026801 0.238390 1.838870  87 47 23
0.059639 -0.080159 1.819999  255 239 143
0.023484 0.240452 1.832039  51 27 11
0.023484 0.240452 1.832039  51 27 11
0.038212 0.062779 1.824698  35 23 11
0.037584 0.133117 1.820120  55 31 15
0.106614 -0.131034 1.861992  223 135 59
0.061175 -0.008646 1.888004  107 75 31
0.043790 0.086395 1.868294  55 31 15
0.045485 0.040492 1.865859  151 99 51
0.056835 -0.056767 1.856083  179 119 55
0.054632 -0.063456 1.848088  167 115 55
0.015791 0.247661 1.822212  67 31 11
0.068947 -0.019454 1.896400  123 91 47
0.054203 -0.058418 1.841869  171 107 47
0.056240 -0.017453 1.838068  47 27 7
0.056240 -0.017453 1.838068  47 27 7
0.029386 0.224864 1.838716  107 63 35
0.023289 0.248720 1.835829  39 19 11
0.050519 0.006168 1.822116  19 11 3
0.038298 0.069124 1.824794  27 15 7
0.053714 0.004541 1.865999  91 59 27
0.053294 -0.047061 1.830517  111 87 43
0.040476 0.062601 1.828889  99 59 23
0.043999 0.175404 1.864301  87 51 23
0.046917 0.080497 1.843843  15 7 3
0.045810 0.142819 1.829661  79 51 19
0.053090 -0.015702 1.815302  35 27 11
0.056384 -0.067354 1.810729  67 27 3
0.061856 0.007642 1.890626  67 43 19
0.058698 0.014417 1.886074  55 39 15
0.056632 0.005095 1.881050  75 51 23
0.053784 0.055884 1.879653  115 67 27
0.052999 0.039019 1.875618  15 7 0
0.048332 0.041412 1.870630  35 23 7
0.055498 -0.045577 1.848941  71 47 19
0.056118 -0.017620 1.838276  59 39 15
0.052611 -0.010802 1.835243  143 87 39
0.029207 0.225008 1.838876  103 59 31
0.042736 0.153133 1.830183  35 19 11
0.040316 0.062563 1.828931  99 59 23
0.056734 0.014409 1.881751  127 79 39
0.056734 0.014409 1.881751  127 79 39
0.059272 -0.019662 1.877262  75 47 19
0.052553 0.020667 1.874735  55 39 15
0.045151 0.212846 1.859620  115 75 39
0.055868 -0.004675 1.856612  51 27 11
0.031477 0.212370 1.841936  71 43 19
0.046013 0.039143 1.835569  115 71 35
0.043208 0.049099 1.833737  51 35 15
0.037742 0.050001 1.822655  39 19 3
0.054618 -0.018843 1.800706  55 31 7
0.062136 -0.017653 1.890099  87 55 27
0.063176 -0.034835 1.887756  223 167 87
0.056546 0.025839 1.881873  51 27 7
0.050392 0.057098 1.874659  51 31 15
0.107979 -0.148778 1.825113  203 107 43
0.056336 -0.049000 1.856349  175 123 51
0.050804 0.007862 1.832890  19 11 3
0.052500 -0.026425 1.828878  159 115 59
0.054471 -0.031889 1.823468  79 51 19
0.020223 0.245762 1.828158  59 23 11
0.060699 -0.003694 1.885145  79 55 31
0.098110 -0.117300 1.852432  255 251 127
0.040971 0.048970 1.827833  99 51 19
0.054748 -0.025078 1.807689  83 47 11
0.056659 -0.027995 1.800158  239 171 87
0.043537 0.169125 1.862228  31 19 7
0.042346 0.057848 1.834585  55 35 19
0.059848 -0.016007 1.882574  147 107 59
0.061227 -0.027863 1.883363  91 67 27
0.053560 0.013278 1.875509  75 47 19
0.060556 -0.017849 1.872475  59 35 11
0.045954 0.094635 1.847194  23 11 3
0.058536 -0.065178 1.853137  163 107 51
0.137091 -0.168760 1.857724  255 255 243
0.057522 -0.013804 1.856312  115 71 31
0.051037 0.012409 1.863691  179 123 67
0.041626 0.099887 1.837535  67 43 19
0.051040 -0.022379 1.824166  159 107 59
0.037050 0.309592 1.784808  39 19 7
0.090259 -0.095802 1.861284  255 227 123
0.057051 -0.022628 1.842792  27 19 7
0.047959 0.030931 1.862215  159 103 59
0.040699 0.108019 1.849052  39 23 11
0.055988 -0.000870 1.813702  15 11 3
0.145264 -0.152794 1.861532  255 203 107
0.114187 -0.135374 1.820771  0 0 0
0.091814 -0.101142 1.838565  0 0 0
0.146607 -0.163238 1.879836  255 247 123
0.095843 -0.119216 1.848454  255 255 175
0.113234 -0.156316 1.811447  0 0 0
0.102003 -0.132823 1.839101  203 131 71
0.081643 -0.110695 1.813792  135 67 27
0.051657 -0.064380 1.809044  255 255 255
0.085651 -0.090952 1.780414  255 159 79
0.056424 -0.075540 1.824863  103 59 23
0.055815 -0.074183 1.827764  255 195 111
0.062048 -0.075608 1.804159  255 231 119
0.097229 -0.121920 1.847839  55 23 3
0.051770 0.004247 1.790165  203 159 103
0.056168 -0.071863 1.817602  135 83 35
0.070990 -0.091300 1.818486  0 0 0
0.053138 -0.064469 1.804950  255 231 135
0.055230 -0.027777 1.800339  255 175 95
0.104867 -0.125799 1.800519  255 255 195
0.057820 -0.075273 1.818827  255 195 115
0.039004 0.237412 1.802182  251 175 107
0.050697 0.024879 1.781537  255 195 135
0.081145 -0.110878 1.809430  155 75 31
0.055637 -0.074753 1.830644  175 99 43
0.052960 -0.002766 1.786633  155 115 67
0.051799 0.021704 1.781445  71 47 27
0.073368 -0.093078 1.825438  175 111 67
0.040738 0.023604 1.817918  67 43 27
0.102243 -0.128531 1.840715  147 95 51
0.050856 -0.001052 1.815834  39 31 19
0.056889 -0.071825 1.810522  187 123 63
0.042390 0.020256 1.823928  131 95 63
0.061012 -0.067329 1.789759  255 171 83
0.099530 -0.124616 1.821097  39 15 7
0.051761 -0.020346 1.813515  183 131 75
0.060266 -0.058577 1.787033  199 119 47
0.058751 -0.059909 1.791277  223 143 75
0.056236 -0.077826 1.830380  179 99 35
0.054046 -0.017724 1.793922  167 99 43
0.077498 -0.076139 1.780871  159 91 39
0.063873 -0.060797 1.779359  255 211 103
0.097045 -0.120776 1.850061  147 87 43
0.051622 -0.021157 1.820410  231 155 83
0.035881 0.033556 1.817107  227 139 71
0.053605 -0.018466 1.808757  159 107 55
0.054770 -0.031694 1.779201  247 167 91
0.053206 -0.054617 1.808527  203 107 35
0.057188 -0.011197 1.857407  207 139 79
0.059246 -0.058751 1.790138  179 107 47
0.041988 0.023081 1.812550  83 47 23
0.054490 0.005369 1.861607  179 115 59
0.055185 -0.030313 1.788136  211 131 63
0.050056 0.029292 1.852723  127 79 47
0.021775 0.260320 1.794284  171 123 71
0.066677 -0.066389 1.777056  231 143 67
0.047996 0.026130 1.792223  199 127 67
0.059673 -0.018126 1.858854  147 99 55
0.052641 -0.014163 1.785712  163 103 51
0.052899 -0.060985 1.827867  175 123 75
0.038134 0.250706 1.779967  159 95 59
0.100694 -0.124794 1.854449  255 175 91
0.053232 -0.066468 1.825896  215 147 75
0.051736 0.016349 1.790525  131 103 63
0.052820 0.004558 1.791411  127 83 47
0.060686 -0.052671 1.779198  107 59 23
0.061458 -0.058348 1.780653  135 75 27
0.042998 0.146898 1.854954  123 83 43
0.099070 -0.126414 1.847806  111 63 27
0.050862 0.000245 1.833046  119 95 59
0.050684 0.030723 1.851001  51 27 11
0.053019 -0.023178 1.798377  195 115 51
0.055487 -0.039502 1.815702  43 23 7
0.059235 -0.061549 1.790057  91 39 7
0.055360 -0.033290 1.782387  119 75 39
0.065235 -0.075865 1.793403  255 167 87
0.055648 -0.033511 1.783358  147 99 47
0.051887 0.006504 1.786715  151 107 51
0.056584 -0.068229 1.845451  95 51 19
0.049485 -0.009353 1.821474  43 31 15
0.052165 -0.023307 1.826550  119 79 39
0.070654 -0.103131 1.811435  247 115 39
0.029212 0.203248 1.836665  179 107 51
0.057279 -0.005281 1.869849  51 27 15
0.061739 -0.052369 1.874703  203 131 67
0.059146 -0.059835 1.793953  171 115 51
0.058125 -0.021735 1.842010  51 31 15
0.057961 -0.013898 1.852137  71 43 19
0.054095 0.037751 1.778685  135 95 51
0.044491 0.072447 1.866576  123 83 47
0.059918 -0.068185 1.795544  115 55 15
0.056060 -0.005553 1.851946  159 111 63
0.048915 0.021220 1.858843  183 123 75
0.055842 0.000310 1.864795  135 79 39
0.056815 -0.033424 1.793880  79 47 19
0.049095 0.020052 1.858284  163 103 51
0.067509 -0.087603 1.808923  0 0 0
0.050057 0.007989 1.830603  19 11 3
0.054457 -0.070683 1.829026  187 115 59
0.051961 0.016085 1.784811  75 51 23
0.079249 -0.107667 1.800173  255 247 135
0.054579 -0.019937 1.796235  67 35 11
0.023803 0.259184 1.792726  91 47 31
0.053143 -0.058745 1.824708  83 47 11
0.052173 -0.014829 1.816068  19 15 7
0.056443 -0.073265 1.837550  211 127 59
0.058459 -0.046274 1.788211  35 19 7
0.061374 -0.028261 1.866114  51 31 11
0.045289 0.033625 1.801249  131 87 43
0.060958 -0.056741 1.784618  51 27 7
0.057402 -0.039793 1.787299  43 23 3
0.055121 0.002348 1.846520  27 15 3
0.047387 0.032088 1.793364  151 95 47
0.060668 -0.036341 1.869582  159 115 63
0.083730 -0.085649 1.779057  183 103 47
0.035081 0.131314 1.817245  131 87 51
0.058802 -0.047771 1.782270  75 43 11
0.058952 -0.048245 1.779035  95 43 11
0.057563 -0.042431 1.810040  47 27 11
0.054989 -0.022388 1.788877  71 39 19
0.054893 0.003530 1.857176  139 87 39
0.046776 0.024069 1.835225  115 75 35
0.045632 0.230783 1.798069  115 79 47
